# .PCD v.7 - Point Cloud Data file format
VERSION .7
FIELDS x y z
SIZE 4 4 4
TYPE F F F
COUNT 1 1 1
WIDTH 1305
HEIGHT 1
VIEWPOINT 0 0 0 1 0 0 0
POINTS 1305
DATA ascii
-0.061885182 0.02243847 0.00167644
-0.063338518 0.023177501 0.001664162
-0.064791858 0.023916479 0.001651943
-0.066245198 0.024655459 0.0016396641
-0.067698538 0.025394499 0.001627386
-0.069151878 0.02613348 0.001615167
0.068749011 -0.04712373 -0.0027003291
0.066911101 -0.04845744 -0.0049275761
0.065442443 -0.047710661 -0.0049399729
0.063973837 -0.04696393 -0.0049523711
0.062245488 -0.047597229 -0.0064414139
0.060773492 -0.046848711 -0.0064538121
0.05930144 -0.046100259 -0.0064662099
0.058099389 -0.04397684 -0.005001903
0.056630731 -0.04323012 -0.0050142999
0.055162132 -0.04248333 -0.0050266981
0.053693529 -0.041736539 -0.0050390959
0.05265021 -0.038937811 -0.002836108
0.051186681 -0.038193639 -0.0028484459
0.049723148 -0.037449479 -0.002860785
0.048259679 -0.036705319 -0.0028731229
0.046796139 -0.035961151 -0.0028854611
0.045633081 -0.03385758 -0.001420796
0.044172999 -0.033115149 -0.001433134
0.042712871 -0.032372709 -0.001445413
0.04094201 -0.032984439 -0.002934813
0.03947854 -0.032240272 -0.0029471519
0.038015012 -0.031496111 -0.0029594901
0.036872331 -0.02940291 -0.001494706
0.035412189 -0.02866048 -0.001506984
0.033952061 -0.027918041 -0.001519322
0.03282303 -0.025831761 -5.4299831e-05
0.031366289 -0.02509105 -6.6578388e-05
0.029909549 -0.024350351 -7.8856952e-05
0.02913535 -0.020932321 0.0028635859
0.034578562 0.0065430999 0.03239942
0.033196509 0.0072458391 0.03238773
0.03181446 0.0079485774 0.032376111
0.030432461 0.0086513162 0.032364432
0.02940869 0.01068401 0.033830289
0.028753281 0.01404154 0.036773741
0.0277465 0.016065661 0.038239721
0.02674645 0.01808631 0.039705809
0.02575326 0.02010351 0.041171972
0.024766801 0.022117261 0.04263806
0.02340853 0.0228079 0.042626619
0.022432329 0.02481645 0.044092949
0.021077391 0.02550542 0.044081509
0.019722581 0.02619433 0.044070121
0.017975509 0.02557045 0.04258078
0.01661724 0.026261151 0.042569339
0.01486003 0.025642511 0.041080061
0.01349837 0.02633488 0.04106861
0.01173091 0.025721431 0.039579209
0.01036584 0.026415531 0.039567649
0.0090007782 0.027109619 0.039556149
0.0076357131 0.027803721 0.039544638
0.0058513279 0.02719897 0.038055118
0.0044828649 0.027894789 0.038043559
0.0026882889 0.027295111 0.036553919
0.001316428 0.027992669 0.03654236
-5.5372711e-05 0.028690221 0.036530789
-0.0022999051 0.026807191 0.033562899
-0.00367856 0.027508199 0.033551279
-0.0050571561 0.028209209 0.033539649
-0.0068823099 0.02762514 0.032049779
-0.0084893107 0.027686181 0.031298939
-0.0098730326 0.02838975 0.031287249
-0.01125675 0.029093379 0.03127557
-0.01264048 0.02979696 0.031263892
-0.01402426 0.030500591 0.031252261
-0.015874861 0.029929399 0.02976221
-0.02596247 0.0070838332 0.0023989079
-0.027886091 0.0065498352 0.00090819597
-0.029339431 0.0072888141 0.00089591742
-0.030792771 0.008027792 0.00088369852
-0.031762239 0.01003289 0.0023500321
-0.033699449 0.0095058084 0.00085914129
-0.035152789 0.01024479 0.0008469224
-0.03660607 0.01098377 0.00083464378
-0.037562009 0.01298195 0.0023010969
-0.03951275 0.01246178 0.00081014627
-0.040966149 0.01320076 0.00079786777
-0.04241943 0.01393974 0.00078564882
-0.043361779 0.01593107 0.002252162
-0.044811729 0.01666832 0.002239943
-0.046261609 0.01740557 0.0022277241
-0.047711551 0.018142881 0.0022155051
-0.04916149 0.018880131 0.0022032859
-0.05061144 0.019617381 0.002191067
-0.052061379 0.02035469 0.002178848
-0.053511322 0.02109194 0.002166569
-0.05496126 0.02182919 0.00215435
-0.05641121 0.02256644 0.0021421311
-0.05731618 0.024538759 0.0036090021
-0.059311088 0.024041001 0.002117693
-0.060761031 0.024778251 0.002105474
-0.062766187 0.02428567 0.00061404711
-0.06366092 0.02625281 0.002080977
-0.065672867 0.02576369 0.00058954948
-0.066560797 0.02772731 0.0020565391
-0.068010747 0.028464619 0.0020443201
-0.06946069 0.029201871 0.0020321009
0.069325328 -0.046007808 -0.003757834
0.067861862 -0.045263588 -0.0037701731
0.066398323 -0.044519421 -0.003782511
0.064552188 -0.045844082 -0.0060135722
0.063083589 -0.045097291 -0.0060259099
0.06161499 -0.044350561 -0.0060383081
0.060146391 -0.043603782 -0.0060507059
0.058677729 -0.042856991 -0.0060631041
0.05720913 -0.042110261 -0.006075501
0.056153659 -0.039310221 -0.0038688779
0.054690119 -0.038566049 -0.003881216
0.05322659 -0.037821889 -0.003893554
0.051763061 -0.037077721 -0.003905952
0.050588489 -0.034971591 -0.0024389031
0.049128409 -0.0342291 -0.002451241
0.047668278 -0.033486661 -0.00246352
0.04620814 -0.032744229 -0.002475858
0.044748008 -0.03200179 -0.0024881959
0.04328787 -0.031259362 -0.002500474
0.041827738 -0.030516859 -0.0025128131
0.0403676 -0.029774429 -0.0025250909
0.038907532 -0.02903199 -0.0025374291
0.03744733 -0.02828956 -0.002549767
0.035987262 -0.027547119 -0.0025620461
0.034853458 -0.02546173 -0.00109458
0.033396721 -0.024720971 -0.001106858
0.03227311 -0.022640759 0.0003605485
0.0311563 -0.02056402 0.0018281339
0.029706361 -0.01982671 0.001815915
0.02825642 -0.01908946 0.001803637
0.033220708 0.0063007469 0.029169319
0.031833589 0.0070060492 0.02915764
0.03044647 0.007711411 0.0291459
0.0294162 0.0097441077 0.03061414
0.02857298 0.01243627 0.032822549
0.02792168 0.01578516 0.035770889
0.026916981 0.01780498 0.037239429
0.025918961 0.01982129 0.038707972
0.024927851 0.021834189 0.04017657
0.02356619 0.02252656 0.04016507
0.02258515 0.024534229 0.041633729
0.021226941 0.025224861 0.041622281
0.01986867 0.0259155 0.041610841
0.01811957 0.025296031 0.040119171
0.016757909 0.02598846 0.040107671
0.01539624 0.026680831 0.04009616
0.01363349 0.026068211 0.038604379
0.01226848 0.02676231 0.038592819
0.01090342 0.027456401 0.038581312
0.00912714 0.02685076 0.037089411
0.0077587371 0.027546581 0.03707784
0.006390274 0.028242409 0.037066281
0.0046004062 0.027643619 0.035574261
0.003228545 0.028341111 0.03556269
0.001428485 0.02774757 0.034070492
-0.00037837031 0.02715743 0.032578349
-0.001756966 0.02785844 0.03256673
-0.0035740139 0.02727348 0.031074461
-0.004956007 0.027976209 0.03106278
-0.0065606828 0.028037669 0.03031075
-0.00839293 0.027460519 0.028818371
-0.0097801089 0.028165819 0.02880669
-0.01116723 0.028871121 0.028795
-0.01255435 0.02957648 0.02878326
-0.01394147 0.03028178 0.028771579
-0.01579416 0.02971494 0.027279019
-0.025391459 0.0081894398 0.0013512369
-0.0268414 0.0089266896 0.001339018
-0.028767111 0.0083969831 -0.0001541972
-0.029741289 0.01040125 0.00131458
-0.03119123 0.0111385 0.001302302
-0.032641169 0.01187581 0.001290083
-0.034091111 0.01261306 0.001277864
-0.035541061 0.01335031 0.001265645
-0.036991 0.01408756 0.001253426
-0.038440939 0.01482487 0.001241207
-0.039890889 0.01556212 0.0012289881
-0.041340832 0.016299371 0.00121671
-0.042790771 0.01703668 0.001204491
-0.044240709 0.01777393 0.0011922719
-0.0456906 0.01851118 0.001180053
-0.047140539 0.01924843 0.001167834
-0.048067208 0.02122855 0.0026369691
-0.049513761 0.021964069 0.0026247499
-0.050960299 0.022699591 0.002612591
-0.052406851 0.023435179 0.0026003721
-0.053853389 0.0241707 0.0025881529
-0.055299941 0.02490622 0.002575994
-0.056746479 0.025641801 0.0025637751
-0.058193032 0.02637732 0.0025515561
-0.059639569 0.02711284 0.0025393961
-0.061639961 0.0266211 0.001045525
-0.063089907 0.027358411 0.001033306
-0.06453985 0.028095661 0.0010210871
-0.065989792 0.028832911 0.001008868
-0.067439727 0.02957022 0.00099664927
-0.068889678 0.03030747 0.00098443031
-0.069765449 0.03226167 0.0024539831
0.069901697 -0.044891831 -0.00481534
0.068438172 -0.04414767 -0.0048276782
0.06697464 -0.04340345 -0.0048400159
0.065511167 -0.042659279 -0.004852355
0.064047627 -0.041915119 -0.0048646932
0.062584102 -0.041170951 -0.0048770308
0.06112057 -0.040426791 -0.004889369
0.059657041 -0.03968263 -0.0049017072
0.058193501 -0.038938459 -0.0049140449
0.056730028 -0.038194239 -0.004926383
0.0552665 -0.037450079 -0.0049387221
0.05408382 -0.035343111 -0.003469348
0.052623689 -0.034600679 -0.003481627
0.05116355 -0.03385824 -0.0034939649
0.049703419 -0.033115741 -0.0035063031
0.048537731 -0.031017421 -0.0020366311
0.04708099 -0.030276719 -0.0020489099
0.04562426 -0.029535949 -0.002061188
0.044167519 -0.02879524 -0.002073467
0.042710781 -0.028054539 -0.0020857451
0.040942669 -0.02866107 -0.003580153
0.039482471 -0.027918641 -0.0035924909
0.038340569 -0.025832361 -0.002122581
0.036883831 -0.02509165 -0.0021349189
0.035752121 -0.02301055 -0.00066506863
0.034298781 -0.02227157 -0.00067728758
0.03317726 -0.020195659 0.00079268223
0.03172731 -0.019458409 0.00078040361
0.03027737 -0.0187211 0.00076818472
0.02916944 -0.016652109 0.0022382741
0.027722839 -0.01591659 0.002226114
0.032031059 0.0067355041 0.026672959
0.030640541 0.007442534 0.026661219
0.029605631 0.0094743967 0.02813196
0.029115921 0.01348746 0.031826381
0.0280996 0.01550984 0.033297181
0.02709013 0.01752877 0.034768101
0.0260874 0.01954424 0.036239091
0.025091531 0.02155626 0.03771013
0.02372646 0.022250351 0.037698571
0.022740779 0.024257241 0.039169729
0.021379109 0.02494961 0.039158229
0.020017451 0.02564198 0.039146721
0.018266261 0.025026741 0.037652548
0.016901201 0.025720829 0.037641048
0.01553619 0.026414931 0.037629541
0.01417112 0.02710909 0.037617981
0.01280606 0.027803181 0.037606481
0.01103449 0.027198371 0.03611213
0.0096660852 0.027894201 0.03610057
0.0082976222 0.02859002 0.036089059
0.0065125232 0.02799207 0.03459454
0.0051406622 0.028689619 0.034582969
0.0033453109 0.028096911 0.03308839
0.001543224 0.027507661 0.031593859
0.000164628 0.028208669 0.03158224
-0.001647711 0.027624549 0.030087469
-0.0032482741 0.027685581 0.029334251
-0.0046319962 0.028389219 0.029322561
-0.0064595938 0.02781284 0.027827799
-0.0078467131 0.0285182 0.027816121
-0.0096844425 0.02794701 0.026321171
-0.01107502 0.0286541 0.026309431
-0.01246548 0.029361131 0.02629769
-0.01385605 0.030068221 0.02628601
-0.01524651 0.030775251 0.02627426
-0.024820451 0.0092950463 0.00030356651
-0.02627039 0.0100323 0.0002913475
-0.02772033 0.01076955 0.00027906889
-0.029170269 0.01150686 0.00026684999
-0.030620219 0.01224411 0.00025463101
-0.03207016 0.01298136 0.0002424121
-0.03303206 0.01497614 0.001713753
-0.034970049 0.01445591 0.0002179742
-0.036419991 0.01519316 0.0002057552
-0.03786993 0.01593047 0.00019347671
-0.039319869 0.01666772 0.0001812577
-0.040769819 0.01740497 0.0001690388
-0.04171133 0.019389389 0.001640558
-0.043669701 0.018879529 0.0001446009
-0.044604421 0.02086043 0.00161612
-0.046051029 0.021596011 0.001603961
-0.047497511 0.02233154 0.001591742
-0.048944119 0.023067061 0.001579523
-0.050390661 0.02380264 0.001567364
-0.051305059 0.025773169 0.003039002
-0.0527482 0.02650696 0.0030268431
-0.054191351 0.027240811 0.003014684
-0.055634499 0.027974609 0.0030025239
-0.05707765 0.0287084 0.002990305
-0.059069932 0.028215891 0.001494169
-0.061068948 0.02772671 -2.145767e-06
-0.062518887 0.028464019 -1.436472e-05
-0.063968837 0.029201269 -2.658367e-05
-0.06541878 0.029938521 -3.880262e-05
-0.066868722 0.03067583 -5.1081181e-05
-0.068318672 0.031413078 -6.3300133e-05
-0.069195747 0.03336465 0.001408756
0.069751263 -0.038899239 -0.001433313
0.068048947 -0.039535999 -0.0029295089
0.066592216 -0.038795289 -0.002941787
0.064624012 -0.040799201 -0.0059221978
0.06341958 -0.038684431 -0.0044505
0.061959449 -0.037941989 -0.0044628382
0.06049931 -0.037199501 -0.0044751172
0.058769882 -0.037822481 -0.0059715509
0.057306349 -0.037078321 -0.0059838891
0.055842821 -0.036334101 -0.0059962268
0.05465883 -0.034229759 -0.0045243502
0.053198699 -0.03348726 -0.0045366879
0.052024901 -0.0313881 -0.003064632
0.05056816 -0.030647339 -0.003076911
0.04911143 -0.029906631 -0.00308919
0.047654688 -0.02916592 -0.0031014681
0.046197951 -0.028425161 -0.0031137471
0.045044541 -0.02633637 -0.001641631
0.04328448 -0.02694374 -0.0031383629
0.041827738 -0.02620304 -0.0031506419
0.040371001 -0.025462329 -0.00316292
0.038914319 -0.024721559 -0.003175199
0.037777781 -0.022641361 -0.001702964
0.036324501 -0.021902381 -0.001715183
0.034871161 -0.0211634 -0.001727462
0.033748269 -0.01909006 -0.0002550483
0.03229833 -0.01835281 -0.0002672672
0.031185631 -0.016284641 0.001205266
0.02973908 -0.01554912 0.001193047
0.02829254 -0.0148136 0.001180887
0.032926138 0.0091214776 0.027153021
0.03153896 0.0098267794 0.027141331
0.03015184 0.01053208 0.02712965
0.029658791 0.01453871 0.030830201
0.02864122 0.01655847 0.032303449
0.027630391 0.018574771 0.03377682
0.02625853 0.019272391 0.03376526
0.025257889 0.021283571 0.035238739
0.023889421 0.02197939 0.03522718
0.02289897 0.02398533 0.036700729
0.02153397 0.024679421 0.036689222
0.0201689 0.02537352 0.036677718
0.018803829 0.026067611 0.036666211
0.01704723 0.025458509 0.035169479
0.01567876 0.026154339 0.035157919
0.01431036 0.02685016 0.035146419
0.0129419 0.02754599 0.035134848
0.01157343 0.028241809 0.035123348
0.0097964406 0.027643019 0.033626441
0.0084245801 0.02834058 0.03361487
0.006637394 0.027746979 0.0321179
0.0048434138 0.02715683 0.030620931
0.003464818 0.02785784 0.03060931
0.002086163 0.02855885 0.03059769
0.00027859211 0.027975621 0.029100539
-0.001103461 0.028678359 0.029088849
-0.0027033091 0.0287407 0.028334379
-0.0045261979 0.028165219 0.02683717
-0.0059133172 0.028870581 0.026825489
-0.0077463388 0.028300291 0.025328159
-0.0091368556 0.029007319 0.025316419
-0.01098007 0.0284422 0.02381897
-0.01237398 0.029151021 0.023807229
-0.0137679 0.029859779 0.023795489
-0.0156247 0.02930158 0.022297921
-0.01702201 0.030012069 0.022286121
-0.025229691 0.01240146 0.00072950119
-0.026676239 0.01313698 0.0007172823
-0.028122781 0.0138725 0.00070512289
-0.02956933 0.01460809 0.000692904
-0.031015869 0.01534361 0.00068068499
-0.032462422 0.01607913 0.0006685257
-0.033908959 0.016814649 0.00065630669
-0.035355508 0.01755023 0.00064408779
-0.03680205 0.018285749 0.00063192839
-0.038248599 0.01902133 0.00061970949
-0.03969514 0.01975685 0.00060749048
-0.041141689 0.020492369 0.00059533119
-0.04258823 0.0212279 0.00058311218
-0.044034779 0.021963481 0.00057089329
-0.04548132 0.022699 0.00055873388
-0.046407219 0.024672151 0.002032757
-0.04785037 0.02540594 0.002020597
-0.049293522 0.0261398 0.002008379
-0.05020589 0.02810609 0.00348264
-0.05164564 0.02883816 0.00347054
-0.05308539 0.02957022 0.0034583809
-0.054525141 0.030302349 0.0034462209
-0.05596495 0.03103441 0.0034341221
-0.057404641 0.03176653 0.003421962
-0.059946779 0.03005439 0.0004367232
-0.061393321 0.030789969 0.00042450431
-0.062839873 0.031525489 0.0004123449
-0.064286411 0.03226101 0.00040012601
-0.065732963 0.032996591 0.000387907
-0.067179501 0.03373212 0.00037574771
-0.068054497 0.03567934 0.001850188
-0.069497637 0.036413189 0.001838028
0.068870246 -0.037052039 -0.0024957061
0.067165911 -0.0376845 -0.0039943461
0.065709174 -0.03694379 -0.0040066838
0.064252444 -0.03620309 -0.0040189619
0.062795699 -0.03546232 -0.0040312409
0.06160355 -0.03335708 -0.0025569799
0.05988222 -0.03398091 -0.0040557981
0.05842549 -0.033240199 -0.0040680771
0.056968808 -0.032499488 -0.0040803552
0.055512071 -0.031758729 -0.0040926342
0.054055329 -0.031018021 -0.0041049118
0.053168539 -0.02756894 -0.001143754
0.051718589 -0.02683169 -0.001155972
0.05026865 -0.026094381 -0.001168191
0.048818711 -0.025357131 -0.00118041
0.047368761 -0.024619879 -0.001192629
0.045918819 -0.023882629 -0.001204908
0.04446888 -0.02314532 -0.001217127
0.043018941 -0.02240807 -0.001229346
0.041568991 -0.02167082 -0.001241565
0.040119048 -0.02093357 -0.0012537841
0.038669109 -0.020196261 -0.001266003
0.03721917 -0.019459009 -0.001278281
0.03576922 -0.018721759 -0.0012905
0.034319282 -0.01798445 -0.001302719
0.03320181 -0.01591718 0.00017225739
0.0320912 -0.01385337 0.001647174
0.030648051 -0.01311958 0.001635015
0.03177524 -0.0024495721 0.01277721
0.0307036 -0.00040560961 0.01425254
0.029289311 0.0003135204 0.01424062
0.02999234 0.0089505306 0.023152649
0.029311061 0.01229513 0.02611566
0.02846342 0.01497477 0.028335029
0.02780759 0.01830643 0.031298161
0.026798779 0.020318391 0.032774031
0.025426921 0.02101594 0.032762472
0.024428369 0.02302283 0.034238402
0.023059901 0.023718661 0.034226831
0.02169144 0.02441448 0.034215331
0.02032304 0.025110301 0.034203772
0.018954581 0.025806131 0.034192201
0.01758611 0.02650195 0.034180701
0.01621771 0.02719778 0.034169141
0.01484925 0.027893599 0.03415763
0.01308036 0.02729398 0.032658339
0.0117085 0.02799153 0.032646779
0.01033664 0.02868909 0.032635208
0.0089648366 0.02938664 0.032623589
0.0071790218 0.02879566 0.031124171
0.005386353 0.028208081 0.02962476
0.0035868881 0.02762395 0.02812523
0.002204895 0.02832669 0.0281136
0.00060904032 0.028388619 0.02735788
-0.00077468163 0.029092191 0.02734625
-0.002592802 0.0285176 0.025846601
-0.0039799209 0.029222909 0.02583492
-0.0058082342 0.028653501 0.02433515
-0.0076432819 0.02808756 0.022835249
-0.0090371966 0.028796321 0.022823511
-0.01043111 0.02950507 0.02281177
-0.01227981 0.02894604 0.02131182
-0.01413524 0.028390409 0.019811811
-0.015997531 0.02783823 0.018311741
-0.02228355 0.01529425 0.0026730299
-0.02419162 0.01476538 0.001172543
-0.02610654 0.01423997 -0.00032794481
-0.02755308 0.01497555 -0.0003401041
-0.02899963 0.015711069 -0.00035232311
-0.02996427 0.017700611 0.001123846
-0.03140742 0.018434411 0.001111686
-0.033339258 0.017917691 -0.00038892031
-0.03478587 0.01865321 -0.00040113929
-0.036232349 0.019388789 -0.00041329861
-0.037678961 0.02012432 -0.00042551759
-0.039125439 0.020859839 -0.00043773651
-0.040572051 0.02159542 -0.00044989589
-0.042018529 0.02233094 -0.00046211481
-0.043465141 0.023066459 -0.00047433379
-0.044395741 0.025038781 0.001002133
-0.045838948 0.02577257 0.00098997355
-0.0472821 0.026506361 0.0009778142
-0.048199181 0.028471829 0.0024544599
-0.049638871 0.02920389 0.0024423599
-0.051078681 0.029936019 0.002430201
-0.052518431 0.03066808 0.002418041
-0.053958181 0.03140014 0.002405941
-0.055397931 0.032132272 0.0023937819
-0.056837682 0.032864328 0.002381623
-0.058827281 0.032376889 0.00088042021
-0.060270429 0.033110742 0.00086826092
-0.06171358 0.033844531 0.00085610151
-0.063156717 0.03457832 0.00084394222
-0.064599872 0.035312179 0.00083172321
-0.066043019 0.036045969 0.00081956392
-0.066915989 0.037988961 0.002296627
-0.06835568 0.038721021 0.0022845271
-0.069795489 0.039453149 0.002272367
0.069688924 -0.034573261 -0.0020568969
0.068238974 -0.033836011 -0.002069175
0.06653595 -0.034465849 -0.003570318
0.06508255 -0.033726871 -0.003582597
0.06362927 -0.032987889 -0.0035948751
0.06217593 -0.032248911 -0.0036070941
0.060722589 -0.03150994 -0.0036193731
0.059269249 -0.0307709 -0.0036316509
0.057815909 -0.030031919 -0.0036438699
0.056362569 -0.029292939 -0.0036561489
0.05518949 -0.027200639 -0.002179205
0.053739551 -0.02646333 -0.0021914239
0.052289609 -0.02572608 -0.0022036431
0.050839659 -0.02498883 -0.002215862
0.04938972 -0.024251521 -0.0022281411
0.047939781 -0.023514271 -0.00224036
0.046489831 -0.022777021 -0.002252579
0.04534388 -0.02069849 -0.00077539682
0.04358995 -0.02130246 -0.0022770171
0.042140011 -0.02056521 -0.0022892361
0.040690061 -0.01982796 -0.002301455
0.039240122 -0.019090651 -0.0023137331
0.037790179 -0.018353401 -0.0023259521
0.03634024 -0.017616151 -0.002338171
0.03521806 -0.01554972 -0.00086081028
0.033771511 -0.0148142 -0.00087296963
0.032659531 -0.01275295 0.0006043911
0.0323993 -0.0073852539 0.0058061481
0.03233349 -0.001368582 0.01175284
0.03126061 0.00067275763 0.01323062
0.030890759 0.0053482652 0.01768792
0.030541301 0.0100134 0.02214545
0.02950233 0.01203752 0.02362353
0.0288285 0.01537174 0.02659148
0.027987421 0.01804316 0.02881461
0.026973899 0.02005434 0.03029287
0.025598651 0.02075362 0.030281249
0.02459538 0.02275956 0.03175962
0.02359885 0.02476209 0.03323805
0.02223039 0.025457921 0.03322649
0.0204798 0.02485222 0.03172493
0.019107999 0.025549769 0.03171337
0.017736141 0.026247321 0.031701799
0.01636434 0.026944879 0.03169024
0.01499248 0.027642431 0.031678621
0.01362062 0.02833998 0.03166705
0.0118463 0.027746441 0.030165261
0.0100652 0.02715629 0.02866352
0.0086865434 0.0278573 0.028651889
0.0068952441 0.02727234 0.027149919
0.0055131912 0.027975081 0.027138291
0.0039214492 0.028036529 0.026381429
0.0025377269 0.02874011 0.02636975
0.00072771311 0.028164679 0.02486771
-0.001089036 0.027592661 0.023365561
-0.002479553 0.028299689 0.023353821
-0.00387007 0.02900672 0.023342069
-0.005700469 0.02844161 0.021839861
-0.0075376029 0.02787995 0.02033752
-0.0089349151 0.0285905 0.02032572
-0.01078224 0.02803397 0.018823329
-0.01218295 0.028746249 0.01881152
-0.01404047 0.028194901 0.01730901
-0.01590478 0.02764708 0.0158065
-0.020557521 0.019542281 0.00535953
-0.023156291 0.01712418 0.001620591
-0.025066489 0.016599599 0.0001176
-0.026509641 0.01733339 0.000105381
-0.02795279 0.018067241 9.3221657e-05
-0.02939594 0.01880103 8.1062317e-05
-0.030839089 0.01953483 6.8902969e-05
-0.03228223 0.020268681 5.6743618e-05
-0.033725381 0.02100247 4.452467e-05
-0.035168529 0.021736261 3.2365318e-05
-0.03661168 0.02247012 2.0205969e-05
-0.03805482 0.023203909 8.046627e-06
-0.039497972 0.02393776 -4.11272e-06
-0.040941119 0.024671551 -1.627207e-05
-0.042384271 0.025405349 -2.849102e-05
-0.043827411 0.0261392 -4.0650371e-05
-0.044752661 0.028105499 0.001438439
-0.046192411 0.02883756 0.00142628
-0.047632162 0.02956963 0.00141418
-0.048279699 0.032142639 0.003638864
-0.04971439 0.03287214 0.0036267641
-0.051149011 0.033601578 0.0036146641
-0.052583691 0.03433108 0.0036025641
-0.054018378 0.035060581 0.0035904651
-0.055453058 0.03579009 0.0035783651
-0.057710409 0.034694251 0.001329184
-0.059702098 0.034211159 -0.0001745224
-0.06058991 0.036158439 0.001304865
-0.062588394 0.035678741 -0.00019884109
-0.06346947 0.037622631 0.001280606
-0.06490922 0.038354691 0.001268446
-0.06634897 0.039086759 0.0012563471
-0.06778872 0.039818879 0.001244187
-0.06922847 0.040550951 0.001232028
0.068809994 -0.032730401 -0.0031168461
0.067360044 -0.031993151 -0.003129065
0.065654933 -0.032618701 -0.0046327109
0.064460158 -0.03051859 -0.0031535029
0.063010223 -0.02978134 -0.0031657219
0.061560269 -0.02904409 -0.003178
0.060110331 -0.02830678 -0.0031902189
0.058660392 -0.027569531 -0.0032024379
0.057210449 -0.026832281 -0.0032146571
0.055760499 -0.026095031 -0.003226876
0.05431056 -0.02535772 -0.003239095
0.052860621 -0.02462047 -0.0032513139
0.051410679 -0.02388322 -0.003263593
0.049960729 -0.02314591 -0.0032758119
0.04851079 -0.022408661 -0.0032880311
0.047360118 -0.020331031 -0.001808465
0.045913581 -0.0195955 -0.001820624
0.044466969 -0.018859919 -0.0018328429
0.04271102 -0.019459611 -0.003336966
0.041573878 -0.01738888 -0.001857221
0.0401274 -0.016653361 -0.00186944
0.038680792 -0.01591778 -0.001881659
0.03723431 -0.01518226 -0.001893818
0.035787702 -0.01444674 -0.001906037
0.034671068 -0.01238638 -0.00042623279
0.033227921 -0.01165253 -0.00043839219
0.032626331 -0.0076153278 0.003279746
0.031531692 -0.0055661201 0.0047598481
0.032161001 0.0030691619 0.0137009
0.031443719 0.0064188838 0.01667339
0.030740021 0.0097618103 0.01964605
0.029696351 0.01178503 0.021126511
0.028302429 0.01249385 0.02111477
0.02816993 0.01778513 0.02632612
0.026787881 0.018487871 0.026314501
0.02577305 0.02049643 0.027795199
0.024765011 0.02250153 0.02927595
0.02338982 0.02320081 0.029264331
0.02201456 0.02390009 0.029252769
0.0206393 0.02459937 0.029241139
0.0192641 0.025298661 0.029229579
0.01827639 0.02729338 0.03071052
0.016904529 0.027990939 0.030698961
0.01513839 0.0273965 0.02919477
0.01376313 0.02809578 0.029183149
0.01198673 0.027506471 0.02767897
0.01060808 0.028207481 0.02766734
0.008821547 0.027623409 0.02616298
0.0074394941 0.02832615 0.026151299
0.0058500771 0.02838802 0.025393249
0.004466414 0.02909166 0.025381571
0.002661109 0.02851701 0.023877081
0.00084906822 0.02794588 0.02237254
-0.00096976763 0.02737814 0.02086788
-0.002363682 0.02808696 0.02085614
-0.003757596 0.028795719 0.0208444
-0.005589962 0.028234961 0.019339619
-0.0069873328 0.02894545 0.019327881
-0.0088298917 0.02838981 0.01782304
-0.0106793 0.02783763 0.016318141
-0.01253545 0.02728897 0.01481324
-0.01439846 0.02674371 0.01330823
-0.01672709 0.0249427 0.01030999
-0.01860708 0.024406079 0.0088048577
-0.02142513 0.021361411 0.0043132901
-0.022856411 0.02208918 0.0043011899
-0.025941251 0.018433809 -0.00093734259
-0.0273844 0.01916766 -0.0009495616
-0.02834833 0.021150351 0.00053167337
-0.029788081 0.021882409 0.00051951408
-0.031227831 0.022614541 0.00050741428
-0.033157051 0.022102891 -0.00099819899
-0.034107331 0.024078671 0.00048309559
-0.035547141 0.024810789 0.0004709959
-0.036986832 0.025542861 0.00045883661
-0.038929641 0.025038181 -0.001046896
-0.040372789 0.025771979 -0.001059055
-0.041306142 0.027739109 0.00042241809
-0.042745888 0.02847123 0.0004102588
-0.044185638 0.029203299 0.00039809939
-0.045625389 0.02993542 0.00038599971
-0.04628009 0.032507058 0.0026143191
-0.04771471 0.033236559 0.00260222
-0.04914939 0.033966061 0.0025901201
-0.050584082 0.034695569 0.0025780201
-0.052018698 0.035425071 0.0025659199
-0.05345339 0.036154568 0.0025538211
-0.05488801 0.036884069 0.0025417211
-0.05714345 0.035792109 0.00028884411
-0.0585832 0.03652418 0.00027668479
-0.06002295 0.037256241 0.00026458499
-0.0614627 0.037988361 0.0002524257
-0.062902451 0.038720429 0.00024026629
-0.064342201 0.039452549 0.00022816659
-0.065781951 0.040184621 0.0002160072
-0.067221701 0.040916681 0.0002038479
-0.067799993 0.043449521 0.0024328229
-0.069234669 0.044179019 0.002420723
0.069628 -0.030261161 -0.0026707051
0.067931063 -0.03088754 -0.0041767359
0.066481113 -0.030150291 -0.0041889548
0.065031171 -0.029413041 -0.0042012329
0.063581228 -0.028675729 -0.0042134519
0.062395271 -0.026583429 -0.0027316811
0.06094873 -0.02584791 -0.0027439001
0.0592314 -0.02646393 -0.0042501092
0.057781462 -0.02572668 -0.0042623281
0.056609031 -0.02364129 -0.0027804971
0.055162489 -0.022905771 -0.002792656
0.053715941 -0.02217019 -0.0028048749
0.052269399 -0.021434659 -0.0028170941
0.050531741 -0.022040309 -0.004323483
0.049376369 -0.019963561 -0.0028414731
0.04792976 -0.019228039 -0.002853692
0.046483278 -0.01849252 -0.0028658509
0.04503667 -0.017756941 -0.0028780701
0.043590128 -0.017021419 -0.0028902891
0.04214358 -0.01628584 -0.0029024479
0.040697038 -0.01555032 -0.0029146669
0.039250489 -0.01481479 -0.0029268861
0.037803952 -0.01407927 -0.002939045
0.03668249 -0.01201975 -0.001456797
0.035239339 -0.01128596 -0.001469016
0.034128129 -0.009231627 1.347065e-05
0.03319132 -0.0065214038 0.0022431021
0.032095309 -0.0044748192 0.003725708
0.032374501 0.0028296111 0.01118678
0.031305671 0.0048623681 0.0126695
0.03094149 0.0095154047 0.01714164
0.029893041 0.01153779 0.0186246
0.02885139 0.01355672 0.020107569
0.028175591 0.016878899 0.023085359
0.02715099 0.018889191 0.02456844
0.02595013 0.02024442 0.0253042
0.024937389 0.022248629 0.02678746
0.02393138 0.024249431 0.02827066
0.02218008 0.02365065 0.02676421
0.020801481 0.02435166 0.02675253
0.019422829 0.02505267 0.02674091
0.01804423 0.025753681 0.026729289
0.01627594 0.025163529 0.025222659
0.01489389 0.02586627 0.02521098
0.0135119 0.026569011 0.02519935
0.01212984 0.027271749 0.025187669
0.01054621 0.027332369 0.024428429
0.0091624856 0.028035941 0.024416739
0.007368803 0.027458729 0.022909939
0.0055682659 0.026885031 0.021402961
0.00417769 0.027592059 0.021391209
0.0023670199 0.027023491 0.019884231
0.00097310537 0.027732249 0.019872431
-0.00084781653 0.02716887 0.01836532
-0.002245069 0.027879421 0.01835358
-0.0036424401 0.028589901 0.01834178
-0.0054768319 0.028033439 0.016834561
-0.0073181391 0.02748036 0.01532727
-0.0091662407 0.026930811 0.01381999
-0.01102102 0.026384709 0.01231259
-0.01243192 0.027102111 0.01230067
-0.01429701 0.026561139 0.01079321
-0.016168831 0.02602369 0.0092856288
-0.01804745 0.02548963 0.007778049
-0.02039719 0.0237059 0.0047746901
-0.022292729 0.023180541 0.00326699
-0.02372402 0.023908321 0.00325495
-0.02562982 0.02338803 0.001747072
-0.027064441 0.024117529 0.001734972
-0.02849913 0.024847031 0.001722872
-0.02993381 0.02557653 0.001710773
-0.03136849 0.026306029 0.001698673
-0.032803118 0.027035531 0.001686573
-0.034237798 0.027765039 0.0016744731
-0.03567243 0.028494541 0.001662374
-0.03710711 0.02922404 0.001650274
-0.03854179 0.029953539 0.0016381741
-0.039976422 0.030683041 0.001626074
-0.041411102 0.031412538 0.001613975
-0.0423305 0.033369299 0.003098011
-0.04376173 0.034097079 0.0030859711
-0.04519302 0.034824848 0.0030738709
-0.046624299 0.035552621 0.003061831
-0.04805553 0.03628039 0.003049731
-0.04948682 0.03700817 0.0030376911
-0.050918099 0.037735939 0.0030255909
-0.052349329 0.038463712 0.003013551
-0.053780619 0.039191481 0.003001451
-0.055211902 0.039919261 0.0029894109
-0.057192389 0.039437 0.0014808771
-0.058627009 0.040166501 0.001468778
-0.060061689 0.040895998 0.001456678
-0.060936932 0.042830352 0.0029411321
-0.06236821 0.043558121 0.0029290321
-0.064365678 0.043084498 0.001420379
-0.065800309 0.043814 0.0014082789
-0.066662014 0.045741439 0.0028928521
-0.068669677 0.04527295 0.001384079
0.068751097 -0.02842259 -0.0037280919
0.067304552 -0.027687071 -0.0037403109
0.065858006 -0.02695149 -0.0037525301
0.064411461 -0.026215971 -0.003764689
0.062964924 -0.025480449 -0.0037769079
0.061518371 -0.02474487 -0.0037891271
0.06007183 -0.024009351 -0.003801286
0.058625281 -0.023273829 -0.0038135049
0.057178739 -0.022538239 -0.0038257239
0.055732191 -0.02180272 -0.003837883
0.054285649 -0.0210672 -0.003850102
0.0528391 -0.020331619 -0.0038623209
0.051392559 -0.0195961 -0.003874481
0.04994601 -0.01886058 -0.0038866999
0.048499461 -0.018124999 -0.0038989191
0.04705292 -0.01738948 -0.003911078
0.045606371 -0.016653949 -0.0039232969
0.04415983 -0.01591837 -0.0039355159
0.042713281 -0.01518285 -0.0039476752
0.041580319 -0.01312077 -0.0024631021
0.040137172 -0.01238698 -0.0024752619
0.03869402 -0.01165318 -0.002487421
0.03725088 -0.01091933 -0.0024995799
0.035807729 -0.01018554 -0.00251174
0.034695148 -0.008133769 -0.0010268691
0.033756319 -0.0054274201 0.001206458
0.03265899 -0.0033834579 0.0026915071
0.031568471 -0.001342952 0.0041764379
0.031517211 0.0046271682 0.01015294
0.031145509 0.0092741847 0.0146324
0.02974141 0.0099881291 0.01462054
0.028691649 0.01200789 0.01610595
0.02836412 0.01663244 0.020585829
0.02733475 0.018641889 0.02207136
0.02649438 0.02129823 0.02430558
0.025112391 0.02200097 0.024293959
0.024101671 0.024000879 0.025779661
0.022723081 0.02470189 0.02576804
0.02096629 0.024109131 0.024258969
0.0195843 0.02481186 0.02424735
0.018202251 0.025514601 0.02423567
0.01682019 0.02621734 0.024224039
0.0154382 0.02692008 0.02421236
0.01385862 0.026980281 0.023451921
0.01247489 0.02768385 0.02344024
0.01109117 0.028387491 0.023428559
0.0093021393 0.02781111 0.02191931
0.007506371 0.02723825 0.02040994
0.0061158538 0.02794528 0.0203982
0.0043098931 0.027377609 0.01888877
0.002915978 0.028086361 0.018877029
0.001099825 0.027523819 0.01736748
-0.00029748681 0.028234361 0.01735568
-0.0021238329 0.027677 0.01584607
-0.0035245421 0.028389219 0.01583427
-0.0053610802 0.0278371 0.01432455
-0.0072044129 0.027288379 0.01281482
-0.0090545416 0.02674311 0.01130497
-0.01091146 0.02620131 0.0097951293
-0.01277512 0.02566296 0.0082851648
-0.01419282 0.026383821 0.0082732439
-0.01606667 0.02585065 0.0067632198
-0.017947379 0.025320951 0.0052531362
-0.01983488 0.02479464 0.0037429931
-0.02172911 0.024271909 0.0022328501
-0.02316034 0.02499968 0.0022207501
-0.024591619 0.025727451 0.0022087099
-0.026022909 0.02645516 0.00219661
-0.02793413 0.025940949 0.00068622828
-0.02936882 0.02667046 0.00067412847
-0.03080344 0.027399961 0.00066202879
-0.03223813 0.02812946 0.00064992899
-0.03367281 0.02885896 0.0006378293
-0.03510743 0.029588461 0.00062572962
-0.036542121 0.03031796 0.00061362982
-0.037976742 0.03104746 0.00060153008
-0.039411429 0.031776961 0.00058943027
-0.04033554 0.033732891 0.002075911
-0.041766819 0.03446066 0.00206387
-0.043198109 0.03518844 0.0020517709
-0.044629339 0.035916209 0.002039731
-0.046060622 0.036643978 0.002027631
-0.046964411 0.038589541 0.0035141711
-0.04839224 0.039315522 0.003502131
-0.049820129 0.040041629 0.0034900899
-0.05124801 0.04076761 0.00347805
-0.05267584 0.04149371 0.0034660101
-0.054648221 0.041010618 0.0019552109
-0.056079511 0.041738391 0.001943111
-0.05751073 0.04246616 0.001931071
-0.05894202 0.04319394 0.001918972
-0.059815232 0.045123931 0.0034058089
-0.061243061 0.045849979 0.003393769
-0.062670954 0.046576019 0.0033817289
-0.064098828 0.047302071 0.003369689
-0.065526716 0.048028111 0.0033576491
-0.066954553 0.048754159 0.0033456089
-0.068382442 0.0494802 0.003333569
-0.069810271 0.05020624 0.003321528
0.069568507 -0.02596283 -0.00327462
0.068125367 -0.025229041 -0.0032867789
0.066427708 -0.02584851 -0.0047977571
0.065239072 -0.02376139 -0.003311157
0.063795917 -0.023027601 -0.003323317
0.06235278 -0.02229375 -0.0033354759
0.060641531 -0.022906359 -0.0048465128
0.059194919 -0.02217078 -0.0048587322
0.057748441 -0.021435261 -0.0048709512
0.056301828 -0.020699739 -0.004883111
0.05485535 -0.01996416 -0.004895329
0.053408738 -0.019228639 -0.004907548
0.05196226 -0.01849312 -0.0049197078
0.050515652 -0.017757529 -0.0049319272
0.04906917 -0.01702201 -0.0049441461
0.04792124 -0.01495564 -0.0034571891
0.046478089 -0.01422185 -0.003469348
0.045034949 -0.01348799 -0.0034815071
0.043591801 -0.0127542 -0.0034936671
0.04214865 -0.01202035 -0.0035058861
0.040705498 -0.01128656 -0.0035180449
0.039262351 -0.01055276 -0.0035302041
0.038141608 -0.0085000992 -0.0020428901
0.036701921 -0.0077680349 -0.0020550489
0.035755988 -0.0050629969 0.0001819134
0.034321312 -0.0043334961 0.0001698136
0.032886621 -0.0036039951 0.0001577139
0.031791389 -0.001564324 0.001645267
0.031388521 0.0030887129 0.0061318278
0.0310061 0.0077314381 0.01061869
0.029944779 0.0097537637 0.01210642
0.02889025 0.01177269 0.01359415
0.028555389 0.01639122 0.01808143
0.027521251 0.018399831 0.019569401
0.02685708 0.021702999 0.02255708
0.025656641 0.02305478 0.023295339
0.024274589 0.023757519 0.02328366
0.022892591 0.02446026 0.023272039
0.02151054 0.025162989 0.023260349
0.02012849 0.02586567 0.02324873
0.018554689 0.02592456 0.0224871
0.017171031 0.0266282 0.02247542
0.01578724 0.027331769 0.022463741
0.01440358 0.0280354 0.02245206
0.01262271 0.027458191 0.020940419
0.01123554 0.028163491 0.020928741
0.0094444752 0.027591471 0.01941693
0.008054018 0.028298561 0.01940519
0.0062527661 0.02773172 0.017893311
0.0044447179 0.02716827 0.016381379
0.0026298759 0.02660835 0.01486939
0.001229167 0.02732062 0.01485759
-0.0001715422 0.028032839 0.01484579
-0.001572251 0.028745061 0.01483393
-0.003404021 0.02819377 0.01332182
-0.0048081279 0.02890772 0.01330996
-0.0066500902 0.02836162 0.01179779
-0.0089401603 0.026560539 0.0087851286
-0.01079917 0.02602309 0.0072727799
-0.01221681 0.02674401 0.0072607989
-0.01408601 0.026211619 0.005748332
-0.015961889 0.025682811 0.0042358642
-0.017386381 0.026407121 0.004223824
-0.01927257 0.02588344 0.002711236
-0.021165431 0.02536327 0.0011986491
-0.022596721 0.026091039 0.00118655
-0.02402794 0.02681881 0.00117451
-0.02545923 0.027546531 0.00116241
-0.02689052 0.0282743 0.00115037
-0.028321739 0.02900207 0.00113827
-0.029753029 0.029729839 0.00112623
-0.03167313 0.02922344 -0.00038671491
-0.033107761 0.02995294 -0.00039881471
-0.034542441 0.030682441 -0.00041091439
-0.035478119 0.03264093 0.00107795
-0.036909342 0.03336871 0.00106585
-0.038340628 0.034096479 0.00105381
-0.039771911 0.034824248 0.00104171
-0.040690601 0.036774099 0.0025306339
-0.04211843 0.037500139 0.002518594
-0.043546319 0.038226191 0.002506495
-0.044974212 0.038952231 0.0024944539
-0.0464021 0.039678279 0.002482414
-0.04782993 0.04040432 0.0024703741
-0.049257811 0.04113036 0.002458334
-0.05068564 0.041856412 0.0024462941
-0.052113529 0.042582449 0.0024342539
-0.054084539 0.042101979 0.00092101097
-0.055515829 0.042829748 0.00090897077
-0.05639714 0.044760581 0.002398133
-0.057825029 0.045486629 0.0023860929
-0.059252921 0.046212669 0.002374053
-0.060680751 0.046938721 0.0023620131
-0.06210864 0.047664762 0.002349973
-0.063536517 0.048390809 0.0023379331
-0.064964414 0.04911685 0.002325892
-0.066392243 0.04984289 0.0023138521
-0.067820132 0.050568938 0.0023018119
-0.069247961 0.051294979 0.002289772
0.068943501 -0.022776131 -0.0028282399
0.06725055 -0.02339476 -0.004341722
0.065807402 -0.022660971 -0.0043538809
0.06462425 -0.020579871 -0.0028646591
0.062921107 -0.021193329 -0.0043782592
0.0614779 -0.020459531 -0.004390419
0.060034811 -0.01972574 -0.0044025779
0.058591601 -0.018991889 -0.0044147372
0.05714846 -0.018258089 -0.0044269562
0.055705309 -0.0175243 -0.004439116
0.054262221 -0.01679045 -0.0044512749
0.052819069 -0.016056661 -0.0044634342
0.05137587 -0.01532286 -0.004475594
0.049932718 -0.01458901 -0.004487813
0.048489571 -0.01385522 -0.0044999719
0.047347192 -0.01179481 -0.003010392
0.045907378 -0.01106274 -0.0030224919
0.044467691 -0.01033062 -0.003034651
0.043027882 -0.0095985532 -0.0030468111
0.041588191 -0.0088664889 -0.00305897
0.040148381 -0.0081343651 -0.00307107
0.038708631 -0.0074023008 -0.0030832291
0.037755609 -0.0046985149 -0.00084263092
0.036320921 -0.0039690142 -0.00085473061
0.034886301 -0.003239512 -0.00086683029
0.033786301 -0.001200736 0.00062310701
0.032693151 0.00083458418 0.0021129849
0.031948209 0.0041723251 0.0051050191
0.031561729 0.0088072419 0.0095992088
0.030499101 0.010827 0.01108938
0.0290916 0.01154274 0.01107752
0.02839422 0.01485628 0.01406991
0.02771038 0.01816291 0.017062429
0.02667832 0.02016717 0.018552899
0.025653061 0.022167981 0.020043431
0.0246346 0.024165271 0.02153391
0.02325082 0.024868909 0.02152222
0.0218671 0.025572481 0.021510599
0.020104529 0.024989249 0.019996639
0.01871741 0.025694549 0.019984899
0.017330291 0.02639991 0.01997322
0.01594317 0.02710521 0.01996154
0.01455605 0.02781057 0.01994985
0.01277316 0.02723765 0.018435661
0.01138264 0.02794474 0.018423909
0.0095895529 0.027377009 0.016909661
0.0077896118 0.02681273 0.01539528
0.0063923001 0.027523279 0.01538354
0.0045822258 0.026964189 0.01386911
0.0031815169 0.0276764 0.01385731
0.001361251 0.027122561 0.01234275
-4.2915341e-05 0.0278365 0.01233095
-0.001446962 0.02855045 0.01231909
-0.002851069 0.02926439 0.01230723
-0.004688323 0.028719131 0.01079267
-0.006532371 0.028177381 0.0092779398
-0.0088231564 0.026383219 0.006260335
-0.01068413 0.025850059 0.0047454829
-0.01210523 0.026572639 0.0047335029
-0.01352632 0.02729523 0.0047215219
-0.01540095 0.026768981 0.0032065511
-0.016825439 0.0274933 0.003194571
-0.0187102 0.026972171 0.00167948
-0.020138079 0.027698221 0.0016674401
-0.022033039 0.027182341 0.0001523495
-0.02346432 0.02791011 0.0001403093
-0.02442169 0.029876349 0.00163132
-0.026326841 0.029365661 0.0001161695
-0.02775812 0.03009343 0.0001040697
-0.02918935 0.0308212 9.2029572e-05
-0.030620631 0.031548981 7.9929829e-05
-0.032051921 0.03227675 6.788969e-05
-0.033483151 0.033004519 5.5789951e-05
-0.03491443 0.033732299 4.3749809e-05
-0.03634572 0.034460071 3.165007e-05
-0.037272509 0.036410749 0.001522958
-0.038700402 0.037136849 0.001510918
-0.040128231 0.037862841 0.001498878
-0.04104149 0.03980672 0.002990305
-0.042984009 0.039314929 0.001474798
-0.044411901 0.040041029 0.0014627581
-0.04583979 0.04076701 0.001450717
-0.04726762 0.041493122 0.001438677
-0.048695501 0.042219099 0.0014266371
-0.049588319 0.044152621 0.0029182429
-0.051012751 0.044876929 0.002906203
-0.052979112 0.044397291 0.001390517
-0.054407001 0.045123339 0.001378477
-0.055286229 0.04704988 0.0028702021
-0.05671072 0.047774199 0.0028581619
-0.058135148 0.048498511 0.0028461809
-0.05955964 0.049222831 0.002834141
-0.060984131 0.049947139 0.002822161
-0.06240857 0.050671492 0.002810121
-0.063833058 0.0513958 0.00279814
-0.065257549 0.052120119 0.0027860999
-0.066681981 0.052844431 0.00277406
-0.068106472 0.053568751 0.002762079
-0.069530956 0.05429307 0.0027500391
0.06951046 -0.021678271 -0.0038685801
0.06807071 -0.020946199 -0.003880739
0.06663096 -0.02021414 -0.003892839
0.065191209 -0.01948202 -0.0039049981
0.063751459 -0.01874995 -0.0039171581
0.062311709 -0.01801783 -0.0039292569
0.060603142 -0.018625321 -0.0054453611
0.05915999 -0.01789147 -0.00545752
0.057992458 -0.01582158 -0.0039656758
0.056552708 -0.01508951 -0.0039778352
0.054830551 -0.015690031 -0.0054940581
0.053673211 -0.01362532 -0.0040021539
0.052233461 -0.01289326 -0.0040142541
0.050793711 -0.01216114 -0.004026413
0.049353961 -0.01142907 -0.0040385718
0.048363209 -0.00871104 -0.001794577
0.046928581 -0.0079815388 -0.001806676
0.045493901 -0.007252038 -0.001818776
0.04405928 -0.0065225358 -0.001830876
0.042624589 -0.005793035 -0.001842976
0.041189909 -0.0050635929 -0.001855075
0.039755229 -0.0043340921 -0.001867175
0.038320601 -0.0036045909 -0.001879275
0.036885981 -0.0028750901 -0.0018913751
0.035451289 -0.0021455879 -0.001903474
0.034349982 -0.0001093745 -0.00041109321
0.032918692 0.00061839819 -0.0004231334
0.032167729 0.003952682 0.002573729
0.031086801 0.0059785252 0.0040662289
0.030706471 0.01060051 0.0085678697
0.02964586 0.01261592 0.01006055
0.02859211 0.01462799 0.01155323
0.028259341 0.01922578 0.01605523
0.02722591 0.021227419 0.01754814
0.025835389 0.021934509 0.0175364
0.02481222 0.023930971 0.01902944
0.0234251 0.02463633 0.0190177
0.022037979 0.02534163 0.01900601
0.02065086 0.02604693 0.018994329
0.018882809 0.02546972 0.01747781
0.017492291 0.02617681 0.01746607
0.016101779 0.026883841 0.01745433
0.01471126 0.02759093 0.01744264
0.01292628 0.0270223 0.01592594
0.01153237 0.027731121 0.0159142
0.0097371936 0.027167739 0.01439744
0.0079352856 0.02660781 0.01288062
0.006534576 0.027320029 0.01286882
0.0047223568 0.026765291 0.01135188
0.00331831 0.027479229 0.01134008
0.0019142031 0.02819318 0.01132822
0.00051009649 0.02890712 0.01131636
-0.00089401013 0.029621059 0.01130456
-0.0027265551 0.029076699 0.0097874999
-0.004565835 0.02853578 0.0082703829
-0.0068471432 0.02674341 0.0052478909
-0.0082648396 0.027464271 0.00523597
-0.0101245 0.02693361 0.003718674
-0.0115456 0.027656261 0.0037066941
-0.01296669 0.028378841 0.0036947131
-0.01483995 0.02785516 0.0021772981
-0.01626444 0.02857947 0.0021652579
-0.01814789 0.028060971 0.00064778328
-0.019575769 0.028787021 0.00063574308
-0.0210036 0.029513059 0.000623703
-0.022431489 0.030239111 0.00061166292
-0.02385938 0.030965149 0.00059956312
-0.025287271 0.03169119 0.00058752298
-0.0267151 0.032417241 0.00057548279
-0.02862573 0.031912569 -0.00094217062
-0.030057009 0.032640342 -0.00095421082
-0.031488299 0.033368111 -0.0009663105
-0.03291953 0.03409588 -0.00097835064
-0.033854481 0.036047459 0.00051528221
-0.03528237 0.036773499 0.00050324202
-0.03620708 0.038719948 0.0019970541
-0.037631512 0.039444271 0.0019850731
-0.039055999 0.04016858 0.001973033
-0.040480491 0.040892899 0.001961052
-0.04190493 0.041617211 0.001949012
-0.043329421 0.04234153 0.001937032
-0.044753909 0.04306585 0.001924992
-0.046178401 0.043790162 0.001913011
-0.047602888 0.044514481 0.0019009711
-0.04849362 0.046443582 0.003395081
-0.049914721 0.047166169 0.0033831
-0.05187631 0.04668742 0.00186491
-0.053300738 0.04741174 0.0018529301
-0.05472523 0.048136059 0.001840889
-0.056149721 0.048860371 0.001828909
-0.057574149 0.04958469 0.001816869
-0.058998641 0.050308999 0.001804888
-0.060423139 0.051033352 0.001792848
-0.061847571 0.05175766 0.001780868
-0.063272059 0.052481979 0.001768827
-0.06469655 0.053206291 0.001756847
-0.066121042 0.05393061 0.001744807
-0.067545533 0.05465493 0.001732767
-0.068969958 0.055379242 0.001720786
0.069013476 -0.01783007 -0.002661824
0.067578793 -0.017100571 -0.002673924
0.066144168 -0.016371069 -0.0026860239
0.064709477 -0.01564157 -0.002698123
0.06327486 -0.01491207 -0.002710223
0.06184018 -0.01418257 -0.0027223229
0.060405489 -0.01345307 -0.0027344229
0.058970869 -0.01272362 -0.002746522
0.057536181 -0.01199412 -0.0027586219
0.056101561 -0.01126462 -0.0027707219
0.054666881 -0.01053512 -0.0027828219
0.053232189 -0.0098056197 -0.0027949209
0.051797569 -0.0090761175 -0.0028070209
0.050362881 -0.0083466172 -0.0028191209
0.048928261 -0.007617116 -0.0028312211
0.047493581 -0.0068876152 -0.0028433199
0.046058889 -0.006158113 -0.0028554201
0.044624209 -0.0054286122 -0.0028675201
0.043189589 -0.004699111 -0.0028796201
0.041754961 -0.0039696102 -0.0028917191
0.040320281 -0.003240108 -0.0029038191
0.03888559 -0.002510607 -0.0029159191
0.03745091 -0.001781106 -0.002928019
0.036016289 -0.001051605 -0.0029401181
0.034913659 0.00098198652 -0.0014452341
0.033482309 0.001709759 -0.001457334
0.032389879 0.0037381649 3.7491322e-05
0.03130424 0.0057631731 0.001532435
0.030570921 0.0090819001 0.0045343642
0.029502209 0.01109821 0.0060294871
0.028792679 0.01440483 0.0090316534
0.028452519 0.0189966 0.01354098
0.02741438 0.020997411 0.01503628
0.02638304 0.02299476 0.01653171
0.02499247 0.02370185 0.01651996
0.023971319 0.025694011 0.018015441
0.022211431 0.025115911 0.01649648
0.020820981 0.025823001 0.016484801
0.019430401 0.026530029 0.016473049
0.01803994 0.02723706 0.016461311
0.016649369 0.027944149 0.016449571
0.01525891 0.02865118 0.01643789
0.01347524 0.02808523 0.01491874
0.01168478 0.027522679 0.01339954
0.0098875761 0.02696359 0.01188034
0.0080835223 0.02640802 0.01036102
0.0066794162 0.027121959 0.01034915
0.0052753692 0.027835909 0.01033735
0.0034577849 0.027287191 0.0088179708
0.002050281 0.02800286 0.0088061094
0.00064277649 0.028718529 0.0087942481
-0.00076472759 0.02943426 0.0087823868
-0.003026366 0.027638379 0.005755126
-0.00487113 0.02710354 0.0042355061
-0.0067226891 0.026572051 0.002715826
-0.0081437826 0.027294639 0.002703846
-0.0095648766 0.028017219 0.0026918049
-0.01098597 0.02873981 0.0026798251
-0.01240706 0.029462401 0.0026678441
-0.01427895 0.02894133 0.001147985
-0.01570344 0.029665651 0.001136005
-0.017127929 0.030389961 0.001123965
-0.018552421 0.03111428 0.001111925
-0.019976851 0.0318386 0.001099944
-0.021401349 0.032562971 0.001087904
-0.022825841 0.03328729 0.001075923
-0.024250271 0.034011599 0.001063883
-0.02615279 0.03350598 -0.00045621401
-0.02758068 0.03423208 -0.00046825409
-0.02900851 0.034958061 -0.0004802942
-0.029948169 0.036908861 0.001015842
-0.03137267 0.037633181 0.001003861
-0.032797098 0.0383575 0.00099182129
-0.033723239 0.04030126 0.0024880769
-0.035144329 0.04102385 0.0024760959
-0.03656536 0.041746441 0.0024641161
-0.037986461 0.042469081 0.0024521351
-0.039407551 0.043191671 0.002440155
-0.040828589 0.043914258 0.002428174
-0.04224968 0.044636849 0.002416193
-0.04367077 0.045359429 0.002404213
-0.045091871 0.04608202 0.002392232
-0.046512961 0.046804611 0.0023802519
-0.047933999 0.04752719 0.0023682709
-0.04935509 0.048249781 0.0023562911
-0.051315311 0.0477736 0.00083565712
-0.052739739 0.048497919 0.00082361698
-0.054164231 0.049222231 0.00081163639
-0.055588719 0.04994655 0.00079959631
-0.05701321 0.050670888 0.00078761578
-0.058437709 0.051395211 0.00077557558
-0.059862141 0.05211952 0.0007635951
-0.061286628 0.052843839 0.00075155502
-0.06271112 0.053568151 0.00073957437
-0.064135551 0.05429247 0.00072753429
-0.064986937 0.056198299 0.0022244451
-0.066408038 0.05692089 0.002212465
-0.067829132 0.057643469 0.002200484
-0.069250233 0.05836606 0.002188504
0.069827683 -0.01539314 -0.002189755
0.068396389 -0.01466537 -0.0022018549
0.066965103 -0.01393759 -0.0022138951
0.065533876 -0.01320982 -0.0022259951
0.06410259 -0.01248205 -0.002238035
0.062671296 -0.01175427 -0.0022501349
0.060970541 -0.01235914 -0.0037710669
0.059535861 -0.01162964 -0.0037831659
0.058101181 -0.01090014 -0.0037952659
0.056666549 -0.01017064 -0.0038073659
0.055231869 -0.0094411373 -0.0038194661
0.053797189 -0.0087116361 -0.0038315649
0.052362561 -0.0079821944 -0.0038436649
0.050927881 -0.007252634 -0.0038557651
0.049789909 -0.00520432 -0.0023587351
0.048358679 -0.0044766068 -0.0023708339
0.046927389 -0.0037488339 -0.002382874
0.04549611 -0.003021061 -0.002394974
0.044064879 -0.0022932889 -0.0024070139
0.04231989 -0.0028756859 -0.0039283629
0.04088521 -0.002146184 -0.0039404631
